1.2067499161 0.0000782322 0.0000067775
1.1916704178 -0.0001868117 0.0793917924
1.1448727846 0.0001195227 0.1457148492
1.0798599720 -0.0000847835 0.1949808896
0.9991340637 -0.0000082878 0.2104177773
0.9164831042 0.0000119692 0.1991060376
0.8459228277 0.0000839058 0.1531575620
0.7965014577 -0.0000640169 0.0838571489
0.7808089852 0.0000000027 0.0000000811
0.7965056896 0.0000642455 -0.0838542134
0.8459326625 -0.0000821770 -0.1531460285
0.9164901972 -0.0000107394 -0.1990749389
0.9991308451 -0.0000220358 -0.2103628963
1.0798289776 -0.0000925908 -0.1949345469
1.1448620558 0.0000908075 -0.1456783861
1.1917587519 0.0000312547 -0.0794398636
1.1968272924 0.1575394273 -0.0003358600
1.1782439947 0.1550439745 0.0784094632
1.1374105215 0.1499127746 0.1483142823
1.0701601505 0.1406797767 0.1931613386
0.9903894067 0.1306613535 0.2121690959
0.9089259505 0.1195043102 0.1986374259
0.8380770087 0.1105015948 0.1537225544
0.7898573875 0.1039384082 0.0838343874
0.7727494836 0.1019544750 -0.0000289107
0.7894817591 0.1038843468 -0.0839372277
0.8385773301 0.1105515435 -0.1531258970
0.9090564251 0.1195073128 -0.1983729154
0.9904081225 0.1305898130 -0.2119296193
1.0701214075 0.1407679617 -0.1930813640
1.1375142336 0.1499406993 -0.1479728818
1.1811245680 0.1554291546 -0.0795698464
1.1652603149 0.3119114339 -0.0000124056
1.1501858234 0.3084623218 0.0793714449
1.1076018810 0.2965822816 0.1472492069
1.0423074961 0.2794695497 0.1932183504
0.9650216103 0.2586126328 0.2129048556
0.8856920600 0.2373817563 0.1980309486
0.8162317872 0.2186994255 0.1540379375
0.7696458101 0.2059992105 0.0837947354
0.7527469397 0.2017721534 -0.0000258153
0.7695741653 0.2059277594 -0.0838238224
0.8162335753 0.2187903523 -0.1539796442
0.8856952786 0.2374081314 -0.1978504211
0.9650312662 0.2586947680 -0.2121510506
1.0426976681 0.2793858647 -0.1938746423
1.1075323820 0.2966678739 -0.1473288834
1.1503422260 0.3082647324 -0.0793701857
1.1116138697 0.4604505002 -0.0000129056
1.1004412174 0.4558955729 0.0797520578
1.0586153269 0.4384721518 0.1466582268
0.9975636005 0.4131707847 0.1947636306
0.9231266379 0.3822552562 0.2125076950
0.8467842340 0.3507248163 0.1990204751
0.7811397314 0.3235508800 0.1537315100
0.7372662425 0.3053947687 0.0831510723
0.7197016478 0.2981102765 0.0000042612
0.7373108268 0.3053860664 -0.0831279159
0.7811952829 0.3235198855 -0.1537021399
0.8467484713 0.3508198559 -0.1992765367
0.9229379296 0.3823215663 -0.2131880522
0.9968701601 0.4129542112 -0.1932302862
1.0593690872 0.4388189316 -0.1471289247
1.1005543470 0.4558650553 -0.0799103826
1.0446562767 0.6034158468 0.0001410629
1.0322412252 0.5959067941 0.0797308162
0.9929859042 0.5733158588 0.1471526623
0.9345365167 0.5396149755 0.1929856688
0.8652866483 0.4994559288 0.2118074447
0.7941853404 0.4584265947 0.1976087540
0.7319022417 0.4224614203 0.1539143920
0.6897870302 0.3985578418 0.0838241130
0.6749647856 0.3896076083 0.0000302782
0.6899717450 0.3986196518 -0.0837032944
0.7321354151 0.4227651060 -0.1536492258
0.7941374183 0.4581429660 -0.1985717416
0.8653387427 0.4995180666 -0.2126748115
0.9348719716 0.5400224328 -0.1944238544
0.9929677248 0.5731880069 -0.1474248767
1.0313342810 0.5953351259 -0.0793273002
0.9570401907 0.7344840765 0.0000433668
0.9449070096 0.7246838808 0.0791878924
0.9089881182 0.6976510882 0.1469457150
0.8569279313 0.6574800014 0.1953417063
0.7927814126 0.6084511876 0.2114808857
0.7273294330 0.5582957864 0.1980593354
0.6711664200 0.5148193836 0.1530334502
0.6317075491 0.4847956896 0.0839316547
0.6185024381 0.4743211865 0.0000275732
0.6320072412 0.4850206971 -0.0838327855
0.6705685854 0.5144184232 -0.1537599564
0.7278175950 0.5585441589 -0.1968140006
0.7928763032 0.6084649563 -0.2125888914
0.8570374250 0.6574108601 -0.1956943721
0.9089351892 0.6976025105 -0.1469817609
0.9446920753 0.7246419191 -0.0791019797
0.8536974788 0.8536978364 -0.0000001277
0.8402775526 0.8402627707 0.0782975405
0.8112011552 0.8111999035 0.1483197808
0.7629569173 0.7629808187 0.1925733536
0.7063379288 0.7064733505 0.2131201327
0.6483748555 0.6481029987 0.1990074962
0.5980691910 0.5982405543 0.1531008333
0.5632456541 0.5631547570 0.0838765353
0.5521013737 0.5521013737 -0.0000000056
0.5631546378 0.5632455945 -0.0838765800
0.5982403159 0.5980690122 -0.1531011611
0.6481027007 0.6483747959 -0.1990085840
0.7064729929 0.7063380480 -0.2131210715
0.7629806995 0.7629565597 -0.1925725341
0.8111995459 0.8112015724 -0.1483195424
0.8402631879 0.8402786255 -0.0782979280
0.7344895601 0.9570503831 -0.0000448087
0.7246450782 0.9446988702 0.0791052729
0.6976038814 0.9089470506 0.1469935626
0.6574150920 0.8570393324 0.1956945360
0.6084663868 0.7928746343 0.2125822604
0.5585451126 0.7278181911 0.1968108416
0.5144189000 0.6705690622 0.1537590623
0.4850207865 0.6320073605 0.0838326514
0.4743211269 0.6185023785 -0.0000275823
0.4847949445 0.6317067146 -0.0839324892
0.5148172379 0.6711644530 -0.1530367136
0.5582925677 0.7273288369 -0.1980683655
0.6084470153 0.7927845716 -0.2114919573
0.6574864984 0.8569179177 -0.1953351498
0.6976544857 0.9089939594 -0.1469481140
0.7246888280 0.9449219704 -0.0791942775
0.6034399867 1.0447112322 -0.0001467360
0.5953525305 1.0313893557 0.0793584213
0.5731580257 0.9930809140 0.1475322396
0.5401546955 0.9348487854 0.1943848729
0.4995301366 0.8653196692 0.2126177996
0.4581474066 0.7941406369 0.1985522509
0.4227670133 0.7321383953 0.1536438167
0.3986200392 0.6899724007 0.0837027580
0.3896073401 0.6749643683 -0.0000303516
0.3985553980 0.6897830963 -0.0838272870
0.4224545658 0.7318928838 -0.1539326906
0.4584126174 0.7941794991 -0.1976546198
0.4994017184 0.8653085828 -0.2118516862
0.5397139788 0.9343061447 -0.1928087026
0.5732796192 0.9930924773 -0.1470725834
0.5959333777 1.0323309898 -0.0797959045
0.4605054557 1.1117457151 0.0000071177
0.4559422433 1.1007622480 0.0801255628
0.4391235709 1.0601426363 0.1478058696
0.4128267467 0.9966092110 0.1919842511
0.3822589219 0.9228105545 0.2129035741
0.3508218825 0.8467538357 0.1992081255
0.3235225677 0.7812020183 0.1536906362
0.3053867221 0.7373124361 0.0831268504
0.2981100082 0.7197009325 -0.0000043590
0.3053917885 0.7372589111 -0.0831564665
0.3235441744 0.7811210752 -0.1537666470
0.3507344723 0.8467827439 -0.1991648078
0.3822457194 0.9229164720 -0.2129422128
0.4127722383 0.9968945384 -0.1929797977
0.4388132989 1.0594557524 -0.1471098959
0.4559961557 1.1006560326 -0.0799968317
0.3119315505 1.1653028727 0.0000175815
0.3083140254 1.1504170895 0.0794367865
0.2968702316 1.1076098680 0.1474764794
0.2791885138 1.0428484678 0.1940553039
0.2586654723 0.9650935531 0.2122532725
0.2374037653 0.8856948018 0.1978555322
0.2187899202 0.8162335157 0.1539802700
0.2059278190 0.7695744634 0.0838235840
0.2017721236 0.7527468204 0.0000258299
0.2059990168 0.7696445584 -0.0837958083
0.2187014520 0.8162328601 -0.1540344805
0.2373844981 0.8856784105 -0.1979162246
0.2586724758 0.9650971293 -0.2123269886
0.2792808712 1.0428010225 -0.1941196620
0.2967185676 1.1076059341 -0.1474176794
0.3084995449 1.1502048969 -0.0793778598
0.1575306058 1.1967840195 0.0003323785
0.1554216295 1.1809567213 0.0793708488
0.1498734951 1.1367567778 0.1473828107
0.1408135742 1.0703873634 0.1942456216
0.1306188405 0.9905610681 0.2122911811
0.1195060387 0.9090484977 0.1984601468
0.1105499417 0.8385689855 0.1531388015
0.1038840935 0.7894803286 0.0839380547
0.1019544899 0.7727495432 0.0000289814
0.1039386466 0.7898589373 -0.0838332623
0.1105021760 0.8380815387 -0.1537144333
0.1194974035 0.9089244008 -0.1986126453
0.1306236237 0.9905676246 -0.2123783231
0.1408350170 1.0705548525 -0.1944063902
0.1498674154 1.1369302273 -0.1480601728
0.1550249904 1.1781262159 -0.0782723799
-0.0000022062 1.2068555355 -0.0000055177
0.0001929939 1.1917036772 0.0793939978
-0.0001205683 1.1448754072 0.1457149535
0.0000841783 1.0798591375 0.1949806660
0.0000093496 0.9991340041 0.2104223371
-0.0000111905 0.9164823890 0.1991090775
-0.0000837933 0.8459224105 0.1531581879
0.0000640014 0.7965014577 0.0838571414
-0.0000000005 0.7808085084 0.0000000207
-0.0000640205 0.7965025902 -0.0838563889
0.0000836855 0.8459266424 -0.1531524211
0.0000122833 0.9164867997 -0.1990870982
0.0000247807 0.9991384149 -0.2104015350
0.0001112238 1.0798979998 -0.1950142831
-0.0000189006 1.1449453831 -0.1457854062
-0.0002290279 1.1917475462 -0.0794282109
-0.1575360596 1.1968390942 -0.0003368326
-0.1550437808 1.1782493591 0.0784110352
-0.1499127448 1.1374118328 0.1483149976
-0.1406798065 1.0701602697 0.1931614429
-0.1306612790 0.9903894067 0.2121693194
-0.1195042506 0.9089258909 0.1986376643
-0.1105015874 0.8380769491 0.1537226588
-0.1039384007 0.7898573875 0.0838343948
-0.1019544676 0.7727493644 -0.0000289397
-0.1038842425 0.7894812822 -0.0839374810
-0.1105512753 0.8385765553 -0.1531267315
-0.1195070744 0.9090558887 -0.1983749270
-0.1305888146 0.9904106259 -0.2119392753
-0.1407642215 1.0701287985 -0.1930973381
-0.1499347985 1.1375200748 -0.1479825079
-0.1554314792 1.1811276674 -0.0795687139
-0.3119114041 1.1652615070 -0.0000124071
-0.3084623814 1.1501864195 0.0793715864
-0.2965823114 1.1076020002 0.1472492665
-0.2794695497 1.0423076153 0.1932183802
-0.2586126328 0.9650216103 0.2129048705
-0.2373817563 0.8856920600 0.1980309486
-0.2186994255 0.8162317872 0.1540379524
-0.2059992105 0.7696458101 0.0837947354
-0.2017721534 0.7527468801 -0.0000258180
-0.2059277594 0.7695741653 -0.0838238299
-0.2187903374 0.8162335753 -0.1539797038
-0.2374081165 0.8856952190 -0.1978506297
-0.2586946487 0.9650314450 -0.2121521980
-0.2793855667 1.0426982641 -0.1938761622
-0.2966677547 1.1075329781 -0.1473294497
-0.3082648814 1.1503427029 -0.0793702453
-0.4604505301 1.1116139889 -0.0000129102
-0.4558956027 1.1004412174 0.0797520652
-0.4384721518 1.0586153269 0.1466582268
-0.4131707847 0.9975636005 0.1947636306
-0.3822552562 0.9231266379 0.2125076950
-0.3507248163 0.8467842340 0.1990204751
-0.3235508800 0.7811397314 0.1537315100
-0.3053947687 0.7372662425 0.0831510723
-0.2981102765 0.7197016478 0.0000042612
-0.3053860664 0.7373108268 -0.0831279159
-0.3235198855 0.7811952829 -0.1537021399
-0.3508198559 0.8467484713 -0.1992765367
-0.3823215663 0.9229379296 -0.2131881118
-0.4129541814 0.9968702197 -0.1932303607
-0.4388189316 1.0593690872 -0.1471289545
-0.4558650553 1.1005544662 -0.0799103752
-0.6034158468 1.0446562767 0.0001410614
-0.5959067345 1.0322411060 0.0797308162
-0.5733158588 0.9929859042 0.1471526623
-0.5396149755 0.9345365167 0.1929856688
-0.4994559288 0.8652866483 0.2118074447
-0.4584265947 0.7941853404 0.1976087540
-0.4224614203 0.7319022417 0.1539143920
-0.3985578418 0.6897870302 0.0838241130
-0.3896076083 0.6749647856 0.0000302782
-0.3986196518 0.6899717450 -0.0837032944
-0.4227651060 0.7321354151 -0.1536492258
-0.4581429660 0.7941374183 -0.1985717416
-0.4995180666 0.8653387427 -0.2126748115
-0.5400224328 0.9348719716 -0.1944238544
-0.5731880069 0.9929677248 -0.1474248767
-0.5953351259 1.0313342810 -0.0793273002
-0.7344839573 0.9570400715 0.0000433656
-0.7246837020 0.9449069500 0.0791878402
-0.6976510286 0.9089881182 0.1469456255
-0.6574800014 0.8569279313 0.1953416467
-0.6084511876 0.7927814126 0.2114808708
-0.5582957864 0.7273294330 0.1980593204
-0.5148193836 0.6711664200 0.1530334502
-0.4847956896 0.6317075491 0.0839316547
-0.4743211865 0.6185024381 0.0000275732
-0.4850206971 0.6320072412 -0.0838327855
-0.5144184232 0.6705685854 -0.1537599415
-0.5585441589 0.7278175950 -0.1968139559
-0.6084649563 0.7928763032 -0.2125888467
-0.6574109197 0.8570374250 -0.1956943870
-0.6976024508 0.9089351892 -0.1469817460
-0.7246417999 0.9446920156 -0.0791019350
-0.8536952138 0.8536959291 -0.0000000659
-0.8402600884 0.8402758241 0.0782963037
-0.8111983538 0.8112004399 0.1483185440
-0.7629804611 0.7629567385 0.1925724149
-0.7064732909 0.7063379288 0.2131197900
-0.6481029987 0.6483748555 0.1990074515
-0.5982405543 0.5980691910 0.1531008333
-0.5631547570 0.5632456541 0.0838765353
-0.5521013737 0.5521013737 -0.0000000056
-0.5632456541 0.5631547570 -0.0838765353
-0.5980691314 0.5982404947 -0.1531008780
-0.6483747959 0.6481029987 -0.1990077496
-0.7063378692 0.7064735293 -0.2131205946
-0.7629572749 0.7629808784 -0.1925739348
-0.8112011552 0.8111990094 -0.1483195573
-0.8402755260 0.8402613401 -0.0782965794
-0.9570254087 0.7344764471 -0.0000436518
-0.9446732402 0.7246360779 0.0790946633
-0.9089303017 0.6975971460 0.1469797492
-0.8570346832 0.6574127674 0.1956879348
-0.7928743362 0.6084662676 0.2125809342
-0.7278182507 0.5585451126 0.1968106776
-0.6705690622 0.5144189000 0.1537590474
-0.6320074201 0.4850208163 0.0838326439
-0.6185024381 0.4743211865 -0.0000275738
-0.6317076087 0.4847957790 -0.0839316025
-0.6711665392 0.5148196220 -0.1530331671
-0.7273296118 0.5582962632 -0.1980578005
-0.7927800417 0.6084526777 -0.2114761770
-0.8569312096 0.6574869752 -0.1953447759
-0.9089971185 0.6976455450 -0.1469572783
-0.9448921084 0.7246791720 -0.0791838616
-1.0447084904 0.6032141447 -0.0001075354
-1.0312329531 0.5953381658 0.0792940110
-0.9929987788 0.5731234550 0.1474867612
-0.9348319769 0.5401468277 0.1943629384
-0.8653187156 0.4995296299 0.2126136422
-0.7941406369 0.4581474364 0.1985518485
-0.7321383953 0.4227670431 0.1536438018
-0.6899724603 0.3986200690 0.0837027505
-0.6749648452 0.3896076381 -0.0000302803
-0.6897874475 0.3985580802 -0.0838238150
-0.7319039106 0.4224625528 -0.1539111435
-0.7941876650 0.4584295750 -0.1975934952
-0.8652696013 0.4994619489 -0.2117560655
-0.9344781637 0.5396754146 -0.1929156482
-0.9932147264 0.5732448697 -0.1472300887
-1.0320558548 0.5959749818 -0.0798025653
-1.1140242815 0.4615539312 0.0002474457
-1.1003794670 0.4556805193 0.0795890242
-1.0600211620 0.4390419126 0.1477667242
-0.9965886474 0.4128161073 0.1919596791
-0.9228095412 0.3822591901 0.2129003257
-0.8467538953 0.3508218825 0.1992076933
-0.7812020779 0.3235225677 0.1536906213
-0.7373124957 0.3053867221 0.0831268281
-0.7197017670 0.2981103659 -0.0000042607
-0.7372672558 0.3053951859 -0.0831504166
-0.7811441422 0.3235526085 -0.1537239999
-0.8467883468 0.3507263958 -0.1989713311
-0.9230361581 0.3822135925 -0.2122867554
-0.9974580407 0.4131290019 -0.1939922124
-1.0597951412 0.4390030801 -0.1480153352
-1.0988841057 0.4552881420 -0.0790642947
-1.1636976004 0.3118019402 0.0002494590
-1.1511247158 0.3084582388 0.0799568892
-1.1078480482 0.2969310880 0.1475484669
-1.0428768396 0.2791925669 0.1940853745
-0.9650954008 0.2586655915 0.2122600079
-0.8856946826 0.2374036759 0.1978562772
-0.8162334561 0.2187898904 0.1539803594
-0.7695745230 0.2059278339 0.0838235766
-0.7527468801 0.2017721534 0.0000258181
-0.7696459293 0.2059992403 -0.0837946460
-0.8162313700 0.2186990380 -0.1540391594
-0.8856917024 0.2373782992 -0.1980291456
-0.9650484324 0.2585757673 -0.2129306495
-1.0422856808 0.2792632878 -0.1932020038
-1.1073669195 0.2968060374 -0.1471400708
-1.1496808529 0.3079660535 -0.0793616101
-1.1958898306 0.1572931260 0.0000684885
-1.1807765961 0.1554754227 0.0794227868
-1.1367536783 0.1498902589 0.1473974288
-1.0704017878 0.1408141106 0.1942699701
-0.9905635715 0.1306171268 0.2123033106
-0.9090476632 0.1195055321 0.1984633952
-0.8385685682 0.1105499119 0.1531395614
-0.7894803286 0.1038841084 0.0839380622
-0.7727492452 0.1019544452 0.0000289331
-0.7898562551 0.1039382815 -0.0838350505
-0.8380699754 0.1105004400 -0.1537339091
-0.9089187384 0.1195025370 -0.1987154484
-0.9905343056 0.1306839138 -0.2124967724
-1.0703561306 0.1407191455 -0.1942452639
-1.1366437674 0.1498501599 -0.1473019719
-1.1805349588 0.1553073823 -0.0793531239
-1.2067053318 -0.0000760606 0.0000122938
-1.1916164160 0.0002026059 0.0793455914
-1.1447943449 -0.0000701051 0.1456505656
-1.0798473358 -0.0000180559 0.1950506121
-0.9991410971 -0.0000027991 0.2104806304
-0.9164822102 -0.0000088394 0.1991270930
-0.8459221721 -0.0000833981 0.1531591266
-0.7965019941 0.0000640177 0.0838567391
-0.7808084488 0.0000000028 -0.0000000235
-0.7965006232 -0.0000640046 -0.0838577151
-0.8459179401 0.0000839782 -0.1531645954
-0.9164783359 0.0000142801 -0.1991453618
-0.9991330504 0.0000115677 -0.2104848474
-1.0797766447 -0.0000004108 -0.1949826479
-1.1447104216 -0.0000033852 -0.1455412060
-1.1916593313 -0.0000118281 -0.0793579221
-1.1967626810 -0.1575342566 -0.0003329470
-1.1781034470 -0.1550276577 0.0782632157
-1.1369155645 -0.1498744190 0.1480507702
-1.0705547333 -0.1408337951 0.1944091022
-0.9905682802 -0.1306208521 0.2123865038
-0.9089226723 -0.1194961071 0.1986181885
-0.8380802870 -0.1105019227 0.1537165195
-0.7898587584 -0.1039386317 0.0838333517
-0.7727494836 -0.1019544825 -0.0000289885
-0.7894800305 -0.1038840562 -0.0839382485
-0.8385676146 -0.1105496883 -0.1531409621
-0.9090468884 -0.1195047945 -0.1984648705
-0.9905605316 -0.1306165606 -0.2122948319
-1.0703841448 -0.1408143193 -0.1942415535
-1.1367456913 -0.1498835087 -0.1473719776
-1.1809459925 -0.1554208547 -0.0793685019
-1.1653009653 -0.3119314611 -0.0000176071
-1.1502029896 -0.3084995449 0.0793771520
-1.1076049805 -0.2967186570 0.1474171281
-1.0428011417 -0.2792807817 0.1941201240
-0.9650972486 -0.2586722672 0.2123277187
-0.8856783509 -0.2373843491 0.1979166418
-0.8162327409 -0.2187014073 0.1540345997
-0.7696442604 -0.2059990466 0.0837959126
-0.7527465224 -0.2017720789 -0.0000258207
-0.7695742249 -0.2059278041 -0.0838236660
-0.8162333965 -0.2187898606 -0.1539805084
-0.8856946826 -0.2374036461 -0.1978558749
-0.9650934935 -0.2586653531 -0.2122533321
-1.0428483486 -0.2791885436 -0.1940549165
-1.1076091528 -0.2968703806 -0.1474758238
-1.1504160166 -0.3083138466 -0.0794364884
-1.1117416620 -0.4605025351 -0.0000071225
-1.1006538868 -0.4559947550 0.0799961984
-1.0594552755 -0.4388131797 0.1471097767
-0.9968948364 -0.4127724767 0.1929805428
-0.9229163527 -0.3822459579 0.2129429579
-0.8467842340 -0.3507338166 0.1991631538
-0.7811213732 -0.3235436678 0.1537657529
-0.7372558117 -0.3053912520 0.0831577107
-0.7196981907 -0.2981093228 0.0000045578
-0.7373099923 -0.3053860366 -0.0831279233
-0.7812007070 -0.3235223889 -0.1536919326
-0.8467540145 -0.3508214653 -0.1992075741
-0.9228107333 -0.3822587132 -0.2129028141
-0.9966091514 -0.4128267169 -0.1919840872
-1.0601425171 -0.4391236007 -0.1478058100
-1.1007604599 -0.4559409618 -0.0801252201
-1.0446807146 -0.6034056544 0.0001470244
-1.0323154926 -0.5959219337 0.0797952339
-0.9930936694 -0.5732825398 0.1470766068
-0.9343076348 -0.5397171974 0.1928161085
-0.8653081656 -0.4994044900 0.2118548304
-0.7942026258 -0.4584085643 0.1976308674
-0.7318972349 -0.4224551916 0.1539148986
-0.6897708774 -0.3985529840 0.0838319212
-0.6749513149 -0.3896011710 0.0000311705
-0.6899592876 -0.3986152709 -0.0837086514
-0.7321295738 -0.4227659106 -0.1536511332
-0.7941459417 -0.4581404328 -0.1985426843
-0.8653229475 -0.4995280504 -0.2126087844
-0.9348488450 -0.5401548147 -0.1943840981
-0.9930809736 -0.5731597543 -0.1475334316
-1.0313730240 -0.5953407288 -0.0793573484
-0.9568975568 -0.7341951728 0.0000447594
-0.9447910786 -0.7247213125 0.0792411044
-0.9090104103 -0.6976879239 0.1469836682
-0.8569266796 -0.6574989557 0.1953768879
-0.7927801013 -0.6084760427 0.2115081847
-0.7275347710 -0.5582646728 0.1979176402
-0.6710945964 -0.5148614645 0.1529125720
-0.6316877007 -0.4847745299 0.0839689225
-0.6184713840 -0.4742994905 0.0000237357
-0.6319569945 -0.4849976301 -0.0838575065
-0.6704661250 -0.5144575238 -0.1537633240
-0.7278747559 -0.5585249066 -0.1967140287
-0.7928972244 -0.6084754467 -0.2125181258
-0.8570502996 -0.6574211121 -0.1956922859
-0.9089595079 -0.6976340413 -0.1470203251
-0.9445668459 -0.7246764898 -0.0791508332
-0.8524712920 -0.8526576161 0.0000044633
-0.8411692381 -0.8410168886 0.0790420547
-0.8113795519 -0.8114548326 0.1483880579
-0.7630015612 -0.7629293799 0.1925729513
-0.7065122128 -0.7063706517 0.2133098245
-0.6485435963 -0.6487134099 0.1978400350
-0.5979404449 -0.5979270339 0.1532793492
-0.5632529259 -0.5631491542 0.0838656723
-0.5520769954 -0.5520708561 -0.0000112695
-0.5630674362 -0.5631310940 -0.0839955956
-0.5979453325 -0.5975788236 -0.1536224037
-0.6481148601 -0.6485172510 -0.1985939592
-0.7064714432 -0.7063325644 -0.2130079865
-0.7630260587 -0.7629297376 -0.1925050616
-0.8113713861 -0.8114500642 -0.1483849138
-0.8411419392 -0.8410074115 -0.0790319294
-0.7352075577 -0.9582383037 -0.0000081913
-0.7241749167 -0.9439445734 0.0786679611
-0.6980336308 -0.9093396068 0.1476224810
-0.6573046446 -0.8570237160 0.1948685199
-0.6082648635 -0.7925809026 0.2107008696
-0.5578508377 -0.7271646857 0.1992276907
-0.5149932504 -0.6711951494 0.1531565785
-0.4851537943 -0.6321605444 0.0836513191
-0.4743586779 -0.6185505390 -0.0000386831
-0.4848502874 -0.6317670345 -0.0838751197
-0.5152915120 -0.6715437174 -0.1525099277
-0.5579886436 -0.7272921801 -0.1988348365
-0.6083654165 -0.7925761938 -0.2115055919
-0.6573214531 -0.8569032550 -0.1948050261
-0.6979797482 -0.9094220996 -0.1476066113
-0.7241899371 -0.9440008402 -0.0786947086
-0.6035205722 -1.0446232557 -0.0000444035
-0.5952302217 -1.0312691927 0.0790889785
-0.5728170872 -0.9921532273 0.1467003226
-0.5399547219 -0.9351325631 0.1951819658
-0.4993612468 -0.8654884696 0.2127884328
-0.4585551918 -0.7938551903 0.1987323016
-0.4226106107 -0.7322570086 0.1536389291
-0.3986175060 -0.6900209785 0.0837050900
-0.3896308541 -0.6750075221 -0.0000311830
-0.3985869884 -0.6898601651 -0.0837741420
-0.4224788249 -0.7322655916 -0.1537085325
-0.4583826065 -0.7936698198 -0.1990539879
-0.4993553162 -0.8652874231 -0.2115751505
-0.5397997499 -0.9349657297 -0.1940944493
-0.5734655857 -0.9928467870 -0.1473153085
-0.5953373909 -1.0315535069 -0.0793802515
-0.4605226815 -1.1117875576 -0.0000865030
-0.4558407068 -1.1005418301 0.0798653588
-0.4387193322 -1.0593960285 0.1474124640
-0.4133259356 -0.9973380566 0.1944667250
-0.3823548555 -0.9231827855 0.2132630348
-0.3510772884 -0.8473227024 0.1978171468
-0.3233951628 -0.7809185982 0.1537472606
-0.3053768575 -0.7372732162 0.0831976756
-0.2981102169 -0.7196961045 -0.0000055974
-0.3053671420 -0.7372214794 -0.0832253620
-0.3233757317 -0.7808721066 -0.1538324505
-0.3511012495 -0.8472511172 -0.1979409009
-0.3822561800 -0.9232422113 -0.2132935375
-0.4131759107 -0.9972665310 -0.1948909014
-0.4381058514 -1.0576773882 -0.1454846710
-0.4560708404 -1.1010445356 -0.0798099786
-0.3119432926 -1.1652965546 -0.0000142507
-0.3082629740 -1.1503117085 0.0793438256
-0.2966822386 -1.1074742079 0.1471491158
-0.2794088721 -1.0422308445 0.1930629611
-0.2586591840 -0.9649634957 0.2128765732
-0.2372732908 -0.8859000206 0.1978627145
-0.2187470794 -0.8162292242 0.1538858265
-0.2060016990 -0.7696460485 0.0838099569
-0.2017892897 -0.7527984381 0.0000014685
-0.2060076892 -0.7696454525 -0.0838126317
-0.2187503427 -0.8162109852 -0.1539168358
-0.2372683585 -0.8858743906 -0.1979307830
-0.2586710751 -0.9649853706 -0.2129647583
-0.2794758976 -1.0422897339 -0.1932016760
-0.2964519858 -1.1076397896 -0.1472037286
-0.3085332215 -1.1502743959 -0.0794075057
-0.1576233953 -1.1967146397 0.0002565685
-0.1554269195 -1.1809520721 0.0795285851
-0.1499145031 -1.1374168396 0.1478200704
-0.1406877935 -1.0699995756 0.1929670721
-0.1304437369 -0.9903995991 0.2121493816
-0.1195745021 -0.9089972377 0.1984715462
-0.1104003862 -0.8380751610 0.1536574066
-0.1039283127 -0.7898510695 0.0838421285
-0.1019702181 -0.7728525400 0.0000107235
-0.1039564684 -0.7899121642 -0.0838129520
-0.1105001196 -0.8381084800 -0.1536787152
-0.1195147261 -0.9089549184 -0.1985977143
-0.1304473877 -0.9903435707 -0.2121630013
-0.1407909989 -1.0700676441 -0.1929483712
-0.1498108208 -1.1375312805 -0.1483027488
-0.1549930125 -1.1783981323 -0.0784914121
0.0000292502 -1.2055711746 -0.0001998896
-0.0000604913 -1.1914564371 0.0795335770
0.0000576173 -1.1449290514 0.1456953734
0.0000145898 -1.0796086788 0.1946090460
-0.0000110045 -0.9991074800 0.2123670578
0.0000572820 -0.9167962074 0.1985610425
-0.0002122419 -0.8453992009 0.1535974145
0.0000496031 -0.7963800430 0.0839675143
0.0000074272 -0.7808202505 0.0000208777
0.0000070496 -0.7966034412 -0.0837975070
0.0000011574 -0.8459510803 -0.1531641781
-0.0000039546 -0.9166245461 -0.1990411580
0.0000039378 -0.9990035295 -0.2123036832
0.0000816706 -1.0793123245 -0.1938178539
-0.0001524111 -1.1461408138 -0.1465003341
0.0000884589 -1.1924636364 -0.0800082460
0.1576885879 -1.1969019175 -0.0000364611
0.1551317424 -1.1798437834 0.0790789798
0.1499439627 -1.1377322674 0.1484297514
0.1408311874 -1.0702391863 0.1931429505
0.1302863210 -0.9903716445 0.2120879740
0.1196586341 -0.9088163972 0.1989602298
0.1105313823 -0.8391141295 0.1526177526
0.1038820744 -0.7895058990 0.0839242414
0.1019626632 -0.7727443576 0.0000376366
0.1040057763 -0.7899152040 -0.0837322995
0.1104608551 -0.8382629156 -0.1535687447
0.1196039617 -0.9089590311 -0.1984810829
0.1303010285 -0.9905397296 -0.2121588141
0.1408940554 -1.0701372623 -0.1938489377
0.1496638656 -1.1363422871 -0.1470850706
0.1551530361 -1.1796894073 -0.0787061825
0.3124579787 -1.1662588120 -0.0001628370
0.3080954552 -1.1491491795 0.0787312984
0.2963411510 -1.1073131561 0.1473325491
0.2795728147 -1.0427938700 0.1939138025
0.2586558163 -0.9649434090 0.2113907784
0.2371974885 -0.8854212165 0.1986253560
0.2188941538 -0.8162118793 0.1540505737
0.2059310526 -0.7695555091 0.0838222802
0.2017412037 -0.7526443601 -0.0000067191
0.2059005946 -0.7692443132 -0.0839307979
0.2187700123 -0.8165487647 -0.1536275744
0.2372786850 -0.8855561614 -0.1984279007
0.2586413920 -0.9649320245 -0.2112929076
0.2794195414 -1.0427143574 -0.1937640756
0.2967378199 -1.1073217392 -0.1472136080
0.3083582222 -1.1503767967 -0.0791860223
0.4614128172 -1.1148073673 0.0001186790
0.4561826289 -1.1009262800 0.0793365985
0.4380709529 -1.0575430393 0.1454368681
0.4130974412 -0.9972926974 0.1947709173
0.3823574483 -0.9230723381 0.2131726593
0.3508488238 -0.8470224142 0.1987323463
0.3235765994 -0.7811824679 0.1535984874
0.3053842485 -0.7372651696 0.0831340030
0.2980847061 -0.7196513414 -0.0000121673
0.3053353429 -0.7373089790 -0.0831058174
0.3236098886 -0.7813053727 -0.1533927023
0.3508881927 -0.8471196890 -0.1985906661
0.3824607134 -0.9229968786 -0.2131607682
0.4132340252 -0.9973564744 -0.1943368167
0.4386454523 -1.0592128038 -0.1473462433
0.4557529092 -1.1002031565 -0.0792755112
0.6015787721 -1.0420091152 0.0000362347
0.5956223011 -1.0317659378 0.0799990073
0.5735890865 -0.9929947853 0.1473658979
0.5397412777 -0.9350139499 0.1939845383
0.4994309843 -0.8652210832 0.2114428282
0.4583635628 -0.7938110828 0.1986352801
0.4223691523 -0.7319307923 0.1540496349
0.3985550702 -0.6897920966 0.0838183537
0.3896082938 -0.6749706268 0.0000316431
0.3986352980 -0.6900249124 -0.0836599618
0.4227911830 -0.7322455645 -0.1534948945
0.4584312141 -0.7940296531 -0.1985562891
0.4995315075 -0.8653813004 -0.2127273828
0.5399042368 -0.9351609349 -0.1950943768
0.5729328990 -0.9922800064 -0.1467303038
0.5955324769 -1.0314606428 -0.0796887428
0.7343750596 -0.9567174911 0.0000081591
0.7248363495 -0.9448887110 0.0794810429
0.6982269883 -0.9097417593 0.1475511938
0.6571863890 -0.8565875292 0.1939695328
0.6082014441 -0.7924864292 0.2121616304
0.5580097437 -0.7272546887 0.1989461184
0.5151867270 -0.6714947820 0.1526199281
0.4848086834 -0.6317161918 0.0839301869
0.4743227661 -0.6184771061 0.0000301608
0.4850654304 -0.6320421100 -0.0837690756
0.5146812201 -0.6707517505 -0.1535118222
0.5581408739 -0.7274096012 -0.1983943731
0.6081580520 -0.7926505208 -0.2122499496
0.6571568251 -0.8567149043 -0.1942013502
0.6982961297 -0.9096742272 -0.1476065964
0.7248265147 -0.9448384643 -0.0794623569
0.8528193235 -0.8525935411 -0.0000015434
0.8412501812 -0.8412671685 0.0791697502
0.8113430142 -0.8116464615 0.1485220790
0.7634328604 -0.7632491589 0.1933415085
0.7064108253 -0.7063902617 0.2121415734
0.6481061578 -0.6485273242 0.1983779073
0.5979447961 -0.5976074338 0.1535904557
0.5629893541 -0.5631690025 0.0839701593
0.5519930720 -0.5519004464 0.0000044520
0.5631271601 -0.5631101727 -0.0839066729
0.5977890491 -0.5978981853 -0.1534180045
0.6483537555 -0.6483991146 -0.1981808543
0.7063391209 -0.7064846158 -0.2118913978
0.7633662820 -0.7632847428 -0.1932166517
0.8114531636 -0.8116122484 -0.1485474855
0.8412774801 -0.8412770033 -0.0791920424
0.9586422443 -0.7355409265 -0.0000082317
0.9449004531 -0.7249413729 0.0788321421
0.9079918861 -0.6969146132 0.1457220167
0.8566710353 -0.6573646069 0.1953749061
0.7929577827 -0.6083414555 0.2123765945
0.7279101014 -0.5585251451 0.1966523379
0.6705632210 -0.5145217776 0.1536940485
0.6323353648 -0.4852149189 0.0835527852
0.6178755760 -0.4741113186 0.0000047920
0.6319169998 -0.4849731624 -0.0837789923
0.6711236238 -0.5148638487 -0.1529914290
0.7274178267 -0.5582515001 -0.1978707463
0.7928603292 -0.6082488298 -0.2111609280
0.8566053510 -0.6572132111 -0.1945993602
0.9086707830 -0.6976047158 -0.1465006322
0.9449553490 -0.7250163555 -0.0790148452
1.0445325375 -0.6033206582 0.0000283214
1.0312068462 -0.5954793692 0.0793605000
0.9931447506 -0.5729686022 0.1472626030
0.9344745278 -0.5397857428 0.1933746189
0.8651729226 -0.4995257258 0.2131379694
0.7941589355 -0.4581554532 0.1986730397
0.7321157455 -0.4227565229 0.1536695808
0.6897597909 -0.3984001577 0.0838010386
0.6760751009 -0.3903455436 0.0000366864
0.6900087595 -0.3984968066 -0.0837840214
0.7317287922 -0.4224620759 -0.1541325152
0.7941610217 -0.4584121108 -0.1979042888
0.8653873205 -0.4995196462 -0.2129212022
0.9346604943 -0.5397832990 -0.1941387504
0.9922075272 -0.5725269914 -0.1463987529
1.0309805870 -0.5953606963 -0.0790783763
1.1136807203 -0.4613974392 0.0000564226
1.0991716385 -0.4551785290 0.0792596266
1.0604110956 -0.4391841292 0.1485069990
0.9972785711 -0.4129765034 0.1931343973
0.9228442907 -0.3823455274 0.2122517079
0.8467473388 -0.3508364558 0.1990709901
0.7811775804 -0.3235121965 0.1536778361
0.7372390032 -0.3053957224 0.0831567645
0.7197951674 -0.2979437113 0.0000040432
0.7366707325 -0.3051182926 -0.0833868459
0.7815741897 -0.3237658143 -0.1532455683
0.8468242884 -0.3507805467 -0.1989570558
0.9228653908 -0.3823433220 -0.2122196406
0.9972761869 -0.4130865335 -0.1931899935
1.0602613688 -0.4390553534 -0.1484490037
1.0988644361 -0.4551615119 -0.0791292712
1.1636586189 -0.3117712140 0.0002401096
1.1511155367 -0.3083569109 0.0799809471
1.1079337597 -0.2970218062 0.1476744413
1.0429304838 -0.2793419659 0.1941578090
0.9651286006 -0.2586041093 0.2121122926
0.8857011199 -0.2374023795 0.1977478266
0.8162396550 -0.2187937498 0.1539626122
0.7695693970 -0.2059353590 0.0838262960
0.7527543902 -0.2017712742 0.0000251204
0.7696169615 -0.2061190009 -0.0837471485
0.8163824677 -0.2186593860 -0.1539266706
0.8857167363 -0.2373863906 -0.1977450699
0.9651234746 -0.2586010993 -0.2121110857
1.0428780317 -0.2793368697 -0.1941023618
1.1075377464 -0.2969073355 -0.1475110501
1.1497375965 -0.3079825044 -0.0794409811
1.1958985329 -0.1572913975 0.0000660356
1.1807887554 -0.1554732025 0.0794319659
1.1367739439 -0.1498961449 0.1474151462
1.0704059601 -0.1408242434 0.1942627877
0.9905638695 -0.1306096911 0.2122631967
0.9090538025 -0.1195008755 0.1984370500
0.8385723829 -0.1105500013 0.1531341821
0.7894805074 -0.1038846821 0.0839377269
0.7727513313 -0.1019547805 0.0000292016
0.7898708582 -0.1039442718 -0.0838212445
0.8381134868 -0.1104960665 -0.1536817402
0.9089435935 -0.1194915697 -0.1985597461
0.9905527830 -0.1306102127 -0.2122825533
1.0703815222 -0.1408210844 -0.1942310333
1.1366988420 -0.1498696208 -0.1473568380
1.1805740595 -0.1553121805 -0.0793794394
